-0.2495 1.1733 -4.9590 142 132 99
-0.2750 1.1508 -4.9590 146 136 102
-0.2780 1.1267 -4.9590 130 120 89
-0.2630 1.2290 -4.9665 128 117 85
-0.2795 1.3027 -4.9665 110 102 77
-0.2570 1.2997 -4.9635 115 107 81
-0.2585 1.2771 -4.9650 168 159 122
-0.2615 1.3192 -4.9635 142 134 105
-0.2585 1.3433 -4.9695 131 121 88
-0.2871 1.3629 -4.9845 120 109 81
-0.2555 1.1673 -4.9590 150 140 105
-0.2585 1.1433 -4.9575 104 96 72
-0.2600 1.1192 -4.9560 127 118 90
-0.2615 1.0951 -4.9545 130 121 92
-0.2645 1.0726 -4.9560 126 117 90
-0.2660 1.0485 -4.9530 128 119 87
-0.2675 1.0244 -4.9515 160 150 114
-0.2705 1.0004 -4.9499 131 122 90
-0.2645 1.2049 -4.9650 117 107 78
-0.2705 1.3373 -4.9710 159 148 113
-0.2630 1.1508 -4.9575 119 110 83
-0.2645 1.1267 -4.9575 134 125 96
-0.2675 1.1027 -4.9560 133 123 93
-0.2690 1.0786 -4.9560 130 122 93
-0.2720 1.0545 -4.9545 142 132 99
-0.2735 1.0305 -4.9515 128 118 85
-0.2495 1.0290 -4.9515 137 127 96
-0.2750 1.0064 -4.9499 142 133 100
-0.2525 1.0049 -4.9499 155 146 111
-0.2540 0.9808 -4.9499 162 153 117
-0.2675 1.2470 -4.9680 118 106 78
-0.2660 1.1809 -4.9605 150 139 106
-0.2690 1.2230 -4.9665 157 146 113
-0.2780 1.2666 -4.9680 126 117 89
-0.2555 1.1613 -4.9575 152 142 108
-0.2585 1.1372 -4.9575 109 100 75
-0.2600 1.1132 -4.9560 113 104 75
-0.2630 1.0891 -4.9545 130 122 93
-0.2645 1.0651 -4.9560 108 97 72
-0.2795 1.2425 -4.9680 148 138 108
-0.2660 1.0425 -4.9530 134 124 92
-0.2810 1.2185 -4.9665 157 147 114
-0.2690 1.0184 -4.9515 169 160 122
-0.2705 0.9944 -4.9499 135 126 94
-0.2660 1.3192 -4.9650 152 144 111
-0.2690 1.2952 -4.9650 124 115 88
-0.2795 1.3147 -4.9665 116 107 78
-0.2555 1.3117 -4.9620 97 90 66
-0.2570 1.2892 -4.9650 140 130 98
-0.2585 1.2651 -4.9650 123 115 87
-0.2495 1.2455 -4.9650 141 133 101
-0.2510 1.2215 -4.9635 124 113 84
-0.2765 1.1989 -4.9635 132 122 90
-0.2525 1.1974 -4.9620 143 133 100
-0.2630 1.2170 -4.9650 150 140 106
-0.2795 1.1764 -4.9620 144 133 100
-0.2555 1.1733 -4.9590 153 143 109
-0.2810 1.1523 -4.9590 157 146 111
-0.2705 1.1327 -4.9575 128 119 90
-0.2705 1.3553 -4.9755 146 135 105
-0.2660 1.1929 -4.9635 133 123 92
-0.2841 1.1282 -4.9590 132 122 89
-0.2931 1.3568 -4.9845 112 100 72
-0.2615 1.1628 -4.9575 155 145 110
-0.2645 1.1387 -4.9575 122 113 86
-0.2660 1.1147 -4.9560 113 103 74
-0.2690 1.0906 -4.9560 118 108 80
-0.2705 1.0666 -4.9560 115 105 78
-0.2720 1.0425 -4.9530 139 129 96
-0.2750 1.0184 -4.9515 153 143 107
-0.2510 1.0169 -4.9515 151 142 107
-0.2765 0.9944 -4.9499 137 129 97
-0.2525 0.9929 -4.9499 162 153 117
-0.2675 1.3132 -4.9635 133 124 95
-0.2690 1.2892 -4.9650 145 137 107
-0.2705 1.3433 -4.9725 145 135 101
-0.2765 1.2726 -4.9680 131 122 92
-0.2795 1.2485 -4.9680 147 136 105
-0.2810 1.2245 -4.9665 149 139 106
-0.2585 1.3358 -4.9665 133 122 89
-0.2645 1.3433 -4.9710 143 132 99
-0.2705 1.2711 -4.9665 148 139 107
-0.2735 1.2470 -4.9680 151 140 109
-0.2750 1.2245 -4.9665 133 122 90
-0.2615 1.3132 -4.9635 117 110 83
-0.2750 1.3629 -4.9785 117 108 79
-0.2690 1.1448 -4.9575 126 117 87
-0.2735 1.0966 -4.9560 120 111 82
-0.2495 1.0951 -4.9545 137 129 98
-0.2765 1.0726 -4.9560 144 136 106
-0.2525 1.0711 -4.9545 138 130 102
-0.2780 1.0485 -4.9530 151 142 108
-0.2540 1.0470 -4.9530 147 139 108
-0.2795 1.0244 -4.9515 152 142 109
-0.2555 1.0229 -4.9515 157 147 112
-0.2825 1.0004 -4.9499 138 130 98
-0.2585 0.9989 -4.9499 142 133 100
-0.2585 1.3313 -4.9650 145 134 101
-0.2615 1.3072 -4.9635 110 102 77
-0.2630 1.2892 -4.9650 135 126 95
-0.2645 1.2651 -4.9665 116 108 80
-0.2720 1.1929 -4.9635 142 132 100
-0.2495 1.2395 -4.9650 137 128 97
-0.2735 1.1688 -4.9605 139 129 95
-0.2645 1.2831 -4.9650 157 147 113
-0.2495 1.3117 -4.9605 106 99 75
-0.2705 1.3508 -4.9740 142 132 98
-0.2765 1.1448 -4.9590 140 130 98
-0.2510 1.2155 -4.9635 124 114 83
-0.2780 1.1929 -4.9635 139 130 97
-0.2540 1.1914 -4.9620 150 140 107
-0.2795 1.1703 -4.9605 147 136 103
-0.2780 1.1207 -4.9590 151 141 108
-0.2825 1.1463 -4.9590 145 136 102
-0.2841 1.1222 -4.9590 163 153 117
-0.2780 1.1824 -4.9620 136 126 93
-0.2555 1.1794 -4.9605 151 141 107
-0.2810 1.1583 -4.9590 151 140 105
-0.2825 1.1342 -4.9590 134 126 94
-0.2841 1.3268 -4.9695 144 134 101
-0.2825 1.2726 -4.9695 133 123 93
-0.2615 1.2470 -4.9665 115 104 77
-0.2630 1.2230 -4.9650 147 136 102
-0.2510 1.3598 -4.9710 153 145 111
-0.2765 1.3373 -4.9725 160 149 114
-0.2810 1.2907 -4.9665 136 130 104
-0.2841 1.2666 -4.9695 133 123 93
-0.2615 1.2410 -4.9665 142 130 100
-0.2660 1.2531 -4.9680 112 101 75
-0.2765 1.2771 -4.9680 119 110 81
-0.2780 1.2546 -4.9680 108 97 70
-0.2810 1.2305 -4.9680 142 132 100
-0.2690 1.1568 -4.9575 155 145 112
-0.2720 1.1087 -4.9575 153 143 110
-0.2495 1.1072 -4.9545 140 131 100
-0.2750 1.0846 -4.9560 159 151 120
-0.2510 1.0831 -4.9545 130 122 93
-0.2765 1.0605 -4.9545 146 136 104
-0.2525 1.0590 -4.9545 138 129 99
-0.2795 1.0365 -4.9530 150 141 108
-0.2555 1.0350 -4.9515 125 116 86
-0.2810 1.0139 -4.9499 147 137 103
-0.2570 1.0109 -4.9499 161 152 116
-0.2585 0.9868 -4.9499 152 143 108
-0.2630 1.3553 -4.9725 158 148 116
-0.2660 1.3328 -4.9680 152 141 106
-0.2825 1.3568 -4.9815 129 117 87
-0.2720 1.2591 -4.9680 116 107 81
-0.2735 1.2350 -4.9680 146 135 103
-0.2765 1.2124 -4.9650 139 129 97
-0.2630 1.1448 -4.9575 116 107 81
-0.2660 1.1207 -4.9575 120 111 82
-0.2675 1.0966 -4.9560 117 108 80
-0.2705 1.0726 -4.9560 125 117 89
-0.2720 1.0485 -4.9530 143 133 100
-0.2735 1.0244 -4.9515 150 140 105
-0.2510 1.0229 -4.9515 145 135 102
-0.2765 1.0004 -4.9499 141 133 101
-0.2525 0.9989 -4.9499 153 144 110
-0.2720 1.3328 -4.9695 152 141 105
-0.2570 1.1553 -4.9575 123 115 85
-0.2585 1.1312 -4.9575 120 111 83
-0.2615 1.1072 -4.9560 139 130 99
-0.2630 1.0846 -4.9545 135 127 98
-0.2645 1.0605 -4.9545 134 122 93
-0.2570 1.3598 -4.9725 132 124 92
-0.2675 1.2410 -4.9680 119 107 77
-0.2690 1.2170 -4.9665 141 131 98
-0.2675 1.3072 -4.9635 109 101 75
-0.2690 1.2831 -4.9665 131 122 92
-0.2495 1.2335 -4.9650 115 105 76
-0.2525 1.2094 -4.9635 140 130 98
-0.2780 1.1869 -4.9635 139 129 96
-0.2540 1.1854 -4.9620 147 137 104
-0.2810 1.1643 -4.9605 135 124 91
-0.2675 1.0365 -4.9530 141 131 99
-0.2690 1.0124 -4.9499 166 157 121
-0.2705 0.9883 -4.9499 160 150 117
-0.2765 1.2831 -4.9665 118 110 83
-0.2780 1.2606 -4.9680 104 94 69
-0.2735 1.3087 -4.9650 136 128 100
-0.2495 1.3057 -4.9620 140 133 104
-0.2525 1.2816 -4.9635 170 160 124
-0.2540 1.2576 -4.9650 163 154 123
-0.2555 1.2335 -4.9650 120 110 80
-0.2585 1.2094 -4.9635 146 136 104
-0.2841 1.1884 -4.9635 146 137 104
-0.2600 1.1869 -4.9620 135 125 91
-0.2630 1.3613 -4.9740 121 113 83
-0.2660 1.3373 -4.9695 143 132 98
-0.2720 1.2651 -4.9680 131 122 93
-0.2735 1.2410 -4.9680 153 142 111
-0.2750 1.2185 -4.9665 140 130 98
-0.2510 1.1613 -4.9575 141 132 101
-0.2735 1.3132 -4.9650 146 137 106
-0.2750 1.2907 -4.9665 151 144 116
-0.2510 1.2876 -4.9635 140 129 97
-0.2540 1.2636 -4.9650 138 129 97
-0.2555 1.2395 -4.9650 141 130 100
-0.2570 1.2155 -4.9650 142 131 99
-0.2841 1.1944 -4.9635 147 137 104
-0.2600 1.1929 -4.9620 141 131 98
-0.2615 1.1688 -4.9590 148 137 102
-0.2525 1.3418 -4.9680 134 123 89
-0.2780 1.3207 -4.9665 122 113 82
-0.2555 1.3192 -4.9620 101 95 70
-0.2525 1.1372 -4.9560 107 98 73
-0.2540 1.1132 -4.9560 125 116 87
-0.2810 1.0906 -4.9560 152 143 111
-0.2570 1.0891 -4.9545 136 128 98
-0.2825 1.0681 -4.9560 143 134 103
-0.2585 1.0651 -4.9545 128 118 90
-0.2555 1.5238 -4.9785 142 135 108
-0.2570 1.4997 -4.9800 133 126 99
-0.2585 1.4757 -4.9815 136 129 101
-0.2615 1.4516 -4.9815 138 130 101
-0.2675 1.3794 -4.9800 168 156 121
-0.2871 1.4245 -4.9860 83 72 52
-0.2645 1.4215 -4.9830 123 118 92
-0.2901 1.3989 -4.9891 76 70 51
-0.2931 1.3764 -4.9891 146 136 106
-0.2810 1.4290 -4.9845 123 119 95
-0.2495 1.4441 -4.9800 137 131 101
-0.2510 1.4215 -4.9800 113 107 81
-0.2871 1.4411 -4.9845 137 131 102
-0.2615 1.5118 -4.9800 108 104 82
-0.2645 1.4877 -4.9830 140 133 104
-0.2495 1.3899 -4.9770 121 110 82
-0.2735 1.3674 -4.9800 133 123 93
-0.2630 1.4396 -4.9815 150 143 115
-0.2856 1.5148 -4.9845 130 122 93
-0.2735 1.5253 -4.9830 138 130 102
-0.2495 1.5238 -4.9785 107 100 75
-0.2630 1.3674 -4.9755 150 143 111
-0.2510 1.4997 -4.9800 143 136 108
-0.2675 1.5253 -4.9815 135 128 100
-0.2690 1.5012 -4.9830 138 131 103
-0.2495 1.4501 -4.9800 139 132 102
-0.2525 1.4757 -4.9815 155 150 123
-0.2510 1.4260 -4.9800 136 130 103
-0.2555 1.4516 -4.9815 126 119 90
-0.2525 1.4020 -4.9800 124 115 88
-0.2555 1.3794 -4.9755 149 139 105
-0.2570 1.4275 -4.9815 138 132 104
-0.2495 1.3779 -4.9740 133 122 90
-0.2886 1.4907 -4.9845 149 142 114
-0.2615 1.3794 -4.9770 168 158 122
-0.2765 1.4170 -4.9845 111 101 77
-0.2795 1.5193 -4.9830 141 133 104
-0.2856 1.5313 -4.9845 143 134 105
-0.2825 1.4952 -4.9845 128 121 92
-0.2871 1.5087 -4.9845 141 133 102
-0.2886 1.4847 -4.9845 173 169 145
-0.2645 1.4817 -4.9830 133 126 97
-0.2886 1.4185 -4.9860 138 128 100
-0.2645 1.4155 -4.9830 99 94 73
-0.2916 1.4486 -4.9845 142 138 113
-0.2675 1.4456 -4.9830 150 143 113
-0.2946 1.4245 -4.9860 98 91 70
-0.2705 1.4215 -4.9830 122 116 92
-0.2720 1.3974 -4.9845 116 104 78
-0.2750 1.3749 -4.9815 161 151 118
-0.2916 1.4606 -4.9845 154 149 123
-0.2675 1.4576 -4.9830 138 130 100
-0.2735 1.5193 -4.9830 115 108 81
-0.2495 1.5178 -4.9785 103 97 74
-0.2510 1.4937 -4.9800 137 130 102
-0.2540 1.4696 -4.9815 147 140 112
-0.2931 1.4366 -4.9845 140 134 107
-0.2690 1.4335 -4.9830 138 133 105
-0.2555 1.4456 -4.9815 128 121 93
-0.2705 1.4095 -4.9845 72 63 45
-0.2735 1.3869 -4.9830 119 106 75
-0.2630 1.3734 -4.9770 164 156 120
-0.2675 1.3914 -4.9830 87 76 51
-0.2961 1.4005 -4.9891 81 75 57
-0.2765 1.4892 -4.9845 140 133 105
-0.2675 1.5133 -4.9815 123 118 92
-0.2510 1.4381 -4.9800 140 134 105
-0.2525 1.4140 -4.9800 124 116 90
-0.2540 1.3899 -4.9785 143 132 101
-0.2916 1.5208 -4.9845 146 138 108
-0.2931 1.4967 -4.9845 145 137 107
-0.2705 1.4952 -4.9830 135 127 99
-0.2961 1.4726 -4.9845 136 133 110
-0.2720 1.5298 -4.9830 131 123 94
-0.2720 1.4711 -4.9830 137 130 101
-0.2495 1.5283 -4.9785 117 110 84
-0.2735 1.4471 -4.9830 158 151 122
-0.2765 1.4230 -4.9845 110 104 82
-0.2780 1.3989 -4.9860 150 142 113
-0.2795 1.3749 -4.9830 127 116 85
-0.2750 1.5072 -4.9830 145 137 109
-0.2510 1.5057 -4.9785 123 116 90
-0.2660 1.3974 -4.9830 126 115 88
-0.2540 1.3959 -4.9785 119 109 80
-0.2525 1.4817 -4.9815 148 143 116
-0.2570 1.3734 -4.9755 155 146 111
-0.2540 1.4576 -4.9815 131 124 95
-0.2570 1.4335 -4.9815 132 126 98
-0.2931 1.4426 -4.9845 136 130 102
-0.2600 1.3854 -4.9785 155 144 111
-0.2810 1.5133 -4.9830 138 130 102
-0.2690 1.4396 -4.9830 159 154 126
-0.2856 1.3929 -4.9875 101 91 67
-0.2916 1.5268 -4.9845 150 142 112
-0.2931 1.5027 -4.9845 152 143 113
-0.2946 1.4787 -4.9845 154 151 128
-0.2720 1.4772 -4.9830 141 133 105
-0.2735 1.4531 -4.9830 141 133 103
-0.2750 1.4290 -4.9845 141 137 110
-0.2780 1.4050 -4.9860 128 119 92
-0.2795 1.3809 -4.9845 132 121 90
-0.2856 1.5268 -4.9845 148 140 110
-0.2871 1.5027 -4.9845 159 151 120
-0.2901 1.4787 -4.9845 154 152 130
-0.2660 1.4757 -4.9830 133 126 97
-0.2916 1.4546 -4.9845 179 177 154
-0.2675 1.4516 -4.9830 140 132 102
-0.2931 1.4305 -4.9860 125 120 96
-0.2690 1.4275 -4.9830 133 128 101
-0.2720 1.4050 -4.9845 95 82 60
-0.2735 1.3809 -4.9830 155 143 110
-0.2615 1.5178 -4.9800 137 133 106
-0.2630 1.4937 -4.9815 138 130 102
-0.2780 1.3929 -4.9860 126 118 91
-0.2495 1.3719 -4.9740 161 151 117
-0.2901 1.5313 -4.9845 146 138 107
-0.2931 1.5087 -4.9845 139 130 100
-0.2946 1.4847 -4.9845 159 155 129
-0.2705 1.4832 -4.9830 133 126 97
-0.2961 1.4606 -4.9845 140 134 108
-0.2735 1.4591 -4.9830 139 132 102
-0.2825 1.4230 -4.9845 91 82 62
-0.2585 1.4215 -4.9815 122 116 90
-0.2600 1.3974 -4.9815 117 105 78
-0.2856 1.3749 -4.9860 120 109 81
-0.2750 1.4350 -4.9830 148 145 118
-0.2615 1.5238 -4.9800 137 131 102
-0.2630 1.4997 -4.9815 133 126 98
-0.2765 1.4110 -4.9860 106 98 74
-0.2780 1.3869 -4.9845 123 112 82
-0.2916 1.5148 -4.9845 136 128 98
-0.2810 1.3689 -4.9830 140 129 98
-0.2856 1.3869 -4.9875 132 119 89
-0.2555 1.5298 -4.9800 119 111 84
-0.2570 1.5057 -4.9800 107 100 76
-0.2585 1.4817 -4.9815 132 125 98
-0.2600 1.4576 -4.9815 145 138 108
-0.2780 1.4772 -4.9830 148 142 115
-0.2946 1.4185 -4.9875 122 113 88
-0.2705 1.4155 -4.9845 97 91 70
-0.2600 1.5298 -4.9800 131 123 95
-0.2630 1.5057 -4.9815 105 99 75
-0.2946 1.4907 -4.9845 147 140 112
-0.2825 1.4892 -4.9845 140 134 107
-0.2495 1.3839 -4.9755 129 117 89
-0.2720 1.3929 -4.9845 98 86 61
-0.2705 1.4892 -4.9830 138 131 102
-0.2660 1.5298 -4.9815 131 123 95
-0.2570 1.5118 -4.9800 87 82 62
-0.2585 1.4877 -4.9815 135 128 100
-0.2600 1.4636 -4.9815 142 134 105
-0.2690 1.5072 -4.9815 122 115 89
-0.2690 1.3674 -4.9770 141 133 101
-0.2510 1.4320 -4.9800 130 124 96
-0.2525 1.4080 -4.9800 123 114 88
-0.2961 1.4666 -4.9845 140 135 110
-0.2555 1.3854 -4.9770 153 143 110
-0.2720 1.4651 -4.9830 141 133 104
-0.2675 1.5193 -4.9815 128 122 95
-0.2750 1.5012 -4.9830 128 121 93
-0.2871 1.3809 -4.9875 152 141 110
-0.2961 1.4065 -4.9891 102 97 75
-0.2510 1.3659 -4.9725 167 160 126
-0.2841 1.4711 -4.9845 190 193 177
-0.2795 1.5253 -4.9830 142 134 105
-0.2810 1.5012 -4.9845 148 140 111
-0.2841 1.4772 -4.9845 184 183 161
-0.2901 1.4050 -4.9875 103 98 76
-0.2916 1.3824 -4.9891 156 145 113
-0.2856 1.4531 -4.9845 160 156 132
-0.2871 1.4290 -4.9845 104 99 77
-0.2645 1.4275 -4.9830 131 125 97
-0.2660 1.4035 -4.9830 113 101 77
-0.2795 1.5313 -4.9830 137 128 99
-0.2901 1.3944 -4.9891 99 90 67
-0.2780 1.4711 -4.9830 150 145 121
-0.2795 1.4531 -4.9830 141 134 106
-0.2825 1.4050 -4.9860 118 111 84
-0.2810 1.5072 -4.9830 149 142 112
-0.2600 1.4035 -4.9815 112 101 75
-0.2825 1.4832 -4.9845 174 172 148
-0.2795 1.4471 -4.9830 145 138 110
-0.2555 1.3659 -4.9740 144 137 105
-0.2961 1.5328 -4.9860 142 134 103
-0.2765 1.4832 -4.9830 132 126 99
-0.2795 1.4591 -4.9830 141 134 106
-0.2810 1.4350 -4.9845 136 131 104
-0.2780 1.4651 -4.9830 143 137 110
-0.2825 1.4110 -4.9860 125 117 90
-0.2600 1.4095 -4.9815 114 106 81
-0.2916 1.3869 -4.9891 137 125 96
-0.2931 1.3644 -4.9875 111 101 74
-0.2735 1.5133 -4.9830 131 124 96
-0.2510 1.5102 -4.9785 107 101 78
-0.2525 1.4877 -4.9800 143 136 109
-0.2540 1.4636 -4.9815 139 132 103
-0.2570 1.4396 -4.9815 135 128 99
-0.2810 1.4411 -4.9845 149 145 117
-0.2961 1.3944 -4.9906 88 81 61
-0.2825 1.4170 -4.9860 131 120 93
-0.2585 1.4155 -4.9815 106 99 74
-0.2856 1.4591 -4.9845 153 149 123
-0.2841 1.4651 -4.9845 136 132 109
-0.2871 1.4350 -4.9845 135 129 102
-0.2630 1.4335 -4.9815 138 132 103
-0.2946 1.4125 -4.9875 134 127 101
-0.2886 1.4125 -4.9875 130 123 95
-0.2660 1.4095 -4.9830 86 77 58
-0.2675 1.3869 -4.9815 123 109 79
-0.2765 1.4952 -4.9830 128 120 92
-0.2856 1.3689 -4.9845 126 116 87
-0.2600 1.3914 -4.9800 147 135 104
-0.2856 1.5208 -4.9845 150 142 112
-0.2871 1.4967 -4.9845 144 136 107
-0.2750 1.4411 -4.9830 182 179 153
-0.2901 1.4726 -4.9845 156 156 136
-0.2856 1.4471 -4.9845 141 135 109
-0.2555 1.5178 -4.9785 116 112 88
-0.2570 1.4937 -4.9815 131 124 96
-0.2600 1.4696 -4.9815 146 138 110
-0.2675 1.3734 -4.9785 163 154 119
-0.2615 1.4456 -4.9815 146 138 109
-0.2931 1.3704 -4.9875 124 115 86
-0.2901 1.4666 -4.9845 133 128 104
-0.2841 1.3989 -4.9875 111 104 80
-0.2660 1.4636 -4.9830 137 129 100
-0.2660 1.4696 -4.9830 138 130 101
-0.2600 1.5373 -4.9815 130 122 94
-0.2645 1.5433 -4.9830 137 129 101
-0.2600 1.5343 -4.9815 128 121 93
-0.2540 1.5433 -4.9800 124 117 89
-0.2901 1.5373 -4.9860 138 129 100
-0.2585 1.5433 -4.9815 128 120 92
-0.2780 1.5388 -4.9845 143 135 106
-0.2780 1.5358 -4.9845 134 125 96
-0.2540 1.5373 -4.9800 127 120 92
-0.2961 1.5403 -4.9860 128 120 91
-0.2660 1.5373 -4.9815 128 121 93
-0.2555 1.5343 -4.9800 114 109 81
-0.2961 1.5373 -4.9860 135 127 97
-0.2841 1.5403 -4.9845 134 126 96
-0.2720 1.5388 -4.9830 131 123 94
-0.2660 1.5343 -4.9815 131 124 96
-0.2841 1.5373 -4.9845 129 120 90
-0.2720 1.5358 -4.9830 128 121 93
-0.2901 1.5403 -4.9860 138 130 101
-0.0615 1.1809 -4.9620 133 124 96
-0.0374 1.1794 -4.9605 153 144 113
0.0829 1.0244 -4.9560 153 142 108
0.1055 1.0214 -4.9560 104 92 67
0.1296 1.0199 -4.9545 155 139 109
-0.1682 0.9853 -4.9560 123 115 87
-0.1848 0.9989 -4.9515 118 110 84
0.0483 0.9898 -4.9605 127 116 86
0.0724 0.9883 -4.9590 124 105 76
-0.1442 0.9823 -4.9575 135 117 90
-0.2329 1.0876 -4.9530 137 129 101
-0.1848 1.0831 -4.9530 131 122 95
0.1040 0.9974 -4.9560 146 134 104
0.1281 0.9959 -4.9545 154 143 111
-0.0133 1.1764 -4.9620 142 135 103
0.1055 1.0816 -4.9560 114 105 78
-0.0043 1.1463 -4.9650 164 155 122
0.0198 1.1433 -4.9650 142 139 109
0.0107 1.1748 -4.9635 137 128 98
-0.2028 1.1568 -4.9515 119 110 81
-0.2043 1.1327 -4.9499 89 85 64
-0.2089 1.0846 -4.9515 157 149 117
-0.2104 1.0605 -4.9499 144 135 103
-0.2119 1.0380 -4.9484 136 128 97
-0.1893 1.0350 -4.9499 136 128 99
-0.2164 1.3448 -4.9620 144 135 102
-0.2149 1.0139 -4.9469 126 118 89
-0.1908 1.0109 -4.9499 111 103 77
-0.1923 1.3433 -4.9605 135 126 95
-0.2164 0.9898 -4.9484 135 126 95
-0.2419 1.3237 -4.9605 116 110 85
-0.2179 1.3207 -4.9590 99 93 71
-0.1938 1.3192 -4.9590 111 105 80
-0.2209 1.2982 -4.9605 160 152 119
-0.1968 1.2952 -4.9605 155 146 112
-0.1216 0.9808 -4.9575 151 139 108
-0.0976 0.9793 -4.9575 150 141 109
0.0634 1.2245 -4.9605 126 120 93
0.0874 1.2230 -4.9590 129 123 96
0.1115 1.2200 -4.9605 131 122 90
0.1356 1.2185 -4.9605 121 112 83
-0.2043 1.1989 -4.9575 130 121 90
-0.1803 1.1974 -4.9575 135 125 96
-0.1562 1.1944 -4.9590 120 113 88
-0.1321 1.1929 -4.9590 113 103 79
0.0859 1.1989 -4.9590 152 147 120
-0.1081 1.1914 -4.9590 134 125 97
0.1085 1.1959 -4.9575 127 118 87
0.1326 1.1944 -4.9590 149 141 110
-0.2299 1.1779 -4.9590 134 124 94
-0.2073 1.1764 -4.9560 137 128 98
-0.1833 1.1733 -4.9560 155 146 117
-0.1592 1.1718 -4.9575 96 89 67
-0.1352 1.1688 -4.9590 92 81 60
0.0829 1.1748 -4.9590 144 137 110
0.1070 1.1718 -4.9575 121 112 86
0.1311 1.1703 -4.9590 124 118 92
0.1296 1.0801 -4.9560 124 115 87
0.0348 1.1733 -4.9635 136 127 98
-0.1502 1.1342 -4.9590 120 104 79
-0.2329 1.1538 -4.9560 137 127 96
0.0589 1.1703 -4.9620 136 128 101
-0.1848 1.1493 -4.9530 118 109 83
-0.1607 1.1478 -4.9575 124 115 87
0.1055 1.1478 -4.9575 142 136 110
0.1296 1.1463 -4.9590 137 129 100
-0.2344 1.1297 -4.9545 152 143 112
-0.1863 1.1252 -4.9530 126 119 92
-0.1637 1.1237 -4.9575 137 128 101
0.0438 1.1418 -4.9635 166 158 124
0.1025 1.1252 -4.9575 135 128 102
0.1265 1.1222 -4.9575 139 132 105
-0.2374 1.1057 -4.9545 136 127 98
-0.2134 1.1042 -4.9515 133 124 95
-0.1893 1.1011 -4.9530 133 125 97
-0.1652 1.0996 -4.9575 128 119 91
0.0679 1.1403 -4.9620 139 129 99
0.1010 1.1011 -4.9575 138 129 99
0.1250 1.0981 -4.9560 131 123 95
-0.1261 1.1327 -4.9590 126 116 90
-0.1021 1.1297 -4.9590 112 104 79
-0.2344 1.0635 -4.9515 155 148 116
-0.2389 1.0816 -4.9530 115 107 80
-0.1667 1.0756 -4.9560 136 127 98
0.0995 1.0771 -4.9560 147 137 106
-0.1111 1.1613 -4.9605 112 103 77
0.1220 1.0741 -4.9560 137 127 98
0.0498 1.2140 -4.9620 141 133 104
-0.2419 1.0575 -4.9530 145 138 107
-0.1697 1.0515 -4.9545 125 116 87
-0.0870 1.1598 -4.9620 124 114 84
0.1040 1.3538 -4.9635 155 147 116
0.1281 1.3523 -4.9635 110 101 75
-0.2344 1.3343 -4.9605 127 118 88
-0.2119 1.3328 -4.9590 127 119 91
-0.1878 1.3313 -4.9590 131 124 95
-0.2374 1.3117 -4.9605 113 106 80
-0.2134 1.3087 -4.9605 131 122 93
-0.1893 1.3072 -4.9605 129 120 92
-0.1908 1.2831 -4.9605 130 121 92
0.0709 1.2365 -4.9605 136 126 97
0.0950 1.2335 -4.9605 138 129 99
0.1175 1.2320 -4.9605 136 126 97
-0.1983 1.2109 -4.9590 136 125 94
-0.1261 1.2049 -4.9605 143 132 101
0.0679 1.2124 -4.9605 121 117 95
0.0920 1.2094 -4.9590 142 135 108
-0.1021 1.2019 -4.9590 148 139 109
0.1160 1.2079 -4.9590 149 142 109
-0.2239 1.1884 -4.9590 125 116 88
-0.1998 1.1869 -4.9560 139 131 100
-0.1758 1.1854 -4.9560 120 112 85
-0.1517 1.1824 -4.9575 125 112 86
-0.1276 1.1809 -4.9575 151 140 110
0.0905 1.1854 -4.9590 124 118 93
0.1145 1.1839 -4.9575 117 105 77
-0.2254 1.1658 -4.9560 138 129 98
-0.2013 1.1643 -4.9530 132 122 92
-0.1773 1.1613 -4.9560 135 127 99
-0.1547 1.1598 -4.9575 124 114 88
0.0874 1.1628 -4.9590 151 143 113
0.1115 1.1598 -4.9575 124 118 93
0.1356 1.1583 -4.9590 144 136 108
-0.0630 1.1568 -4.9620 135 125 94
-0.2284 1.1418 -4.9545 138 128 96
-0.1788 1.1372 -4.9545 118 110 84
0.0859 1.1387 -4.9590 126 117 90
0.1100 1.1357 -4.9575 129 122 95
0.1341 1.1342 -4.9575 130 123 94
-0.2299 1.1177 -4.9530 113 105 79
-0.1818 1.1132 -4.9545 121 114 88
0.0273 1.0229 -4.9620 163 154 121
0.1085 1.1117 -4.9575 129 122 95
0.1326 1.1102 -4.9560 133 126 98
-0.2314 1.0936 -4.9530 137 129 100
-0.1833 1.0891 -4.9530 120 111 83
0.0513 1.0199 -4.9605 160 150 116
-0.0389 1.1553 -4.9620 120 110 82
0.1055 1.0876 -4.9560 135 127 98
0.1296 1.0861 -4.9560 126 117 89
-0.0780 1.1282 -4.9605 138 129 97
-0.2344 1.0696 -4.9530 160 152 121
-0.1863 1.0651 -4.9515 129 121 93
0.1040 1.0635 -4.9560 137 127 96
0.1281 1.0620 -4.9560 140 129 99
-0.0148 1.1523 -4.9635 132 124 93
-0.2359 1.0455 -4.9515 137 130 100
-0.1878 1.0410 -4.9515 123 116 87
-0.1637 1.0395 -4.9560 132 122 92
0.0092 1.1508 -4.9650 141 133 102
0.1025 1.0395 -4.9560 130 115 86
0.1250 1.0380 -4.9545 132 109 83
0.0318 1.1493 -4.9635 150 142 110
-0.2389 1.0214 -4.9499 148 138 106
-0.1667 1.0154 -4.9545 115 107 81
0.0995 1.0169 -4.9560 132 122 95
0.1235 1.0139 -4.9560 147 136 104
-0.2404 0.9974 -4.9499 155 146 113
-0.1923 0.9929 -4.9499 137 129 100
-0.0539 1.1252 -4.9620 157 147 113
0.0980 0.9929 -4.9560 130 110 80
0.1220 0.9898 -4.9560 138 128 97
-0.0299 1.1237 -4.9635 139 129 97
-0.1983 1.2711 -4.9620 119 108 79
-0.2149 1.1463 -4.9499 134 126 97
-0.1923 1.1433 -4.9515 99 92 69
0.0423 1.1177 -4.9635 125 115 87
-0.2179 1.1222 -4.9515 92 87 66
-0.1938 1.1207 -4.9515 122 116 91
-0.1968 1.0726 -4.9499 141 132 101
-0.2239 1.0500 -4.9499 131 122 92
0.0664 1.1162 -4.9620 146 136 104
-0.1517 1.1102 -4.9590 145 133 104
-0.1998 1.0485 -4.9499 137 129 99
-0.1276 1.1087 -4.9590 157 148 116
-0.2254 1.0259 -4.9499 151 141 107
-0.2013 1.0244 -4.9484 135 126 96
-0.1036 1.1057 -4.9590 154 146 114
-0.0795 1.1042 -4.9590 152 142 106
-0.2269 1.0019 -4.9484 142 134 102
-0.0705 1.3629 -4.9650 152 146 116
-0.0464 1.3613 -4.9650 125 117 90
-0.2389 1.3523 -4.9680 146 137 102
-0.0224 1.3583 -4.9650 160 151 120
0.0017 1.3568 -4.9650 147 139 110
-0.2164 1.3523 -4.9635 143 132 99
0.0258 1.3538 -4.9650 121 113 86
0.0498 1.3523 -4.9665 136 127 97
-0.2043 1.0004 -4.9484 129 121 93
-0.1682 1.3478 -4.9635 116 107 81
-0.1442 1.3448 -4.9650 119 110 82
-0.1201 1.3433 -4.9650 147 138 107
0.0739 1.3508 -4.9650 128 119 88
0.0980 1.3478 -4.9635 136 128 99
-0.0960 1.3403 -4.9635 130 123 97
-0.0720 1.3388 -4.9650 125 117 89
-0.0479 1.3373 -4.9635 130 122 93
-0.0239 1.3343 -4.9650 150 142 113
0.0002 1.3328 -4.9650 140 133 102
0.0243 1.3313 -4.9650 134 125 94
-0.1697 1.3237 -4.9620 116 109 84
-0.1457 1.3207 -4.9665 136 131 105
0.0483 1.3283 -4.9665 129 122 94
0.0724 1.3268 -4.9665 134 126 98
-0.1216 1.3192 -4.9650 122 113 84
-0.0976 1.3177 -4.9635 116 108 80
0.0965 1.3237 -4.9650 116 108 80
0.1205 1.3222 -4.9650 133 125 96
-0.0735 1.3147 -4.9635 147 139 108
-0.0494 1.3132 -4.9635 151 143 112
-0.2434 1.3057 -4.9620 154 146 116
-0.0254 1.3102 -4.9650 133 125 98
-0.0013 1.3087 -4.9665 131 124 95
0.0213 1.3072 -4.9650 115 108 83
0.0453 1.3042 -4.9665 130 124 96
-0.1713 1.2997 -4.9620 130 121 89
-0.1472 1.2967 -4.9650 150 141 109
-0.1231 1.2952 -4.9650 147 137 106
0.0694 1.3027 -4.9665 156 150 121
0.0935 1.2997 -4.9665 111 104 80
-0.1006 1.2937 -4.9635 129 119 90
-0.0765 1.2907 -4.9635 150 141 110
0.1175 1.2982 -4.9650 133 124 93
-0.1442 1.2064 -4.9605 161 148 115
-0.0524 1.2892 -4.9635 146 139 108
-0.0284 1.2861 -4.9650 131 123 93
-0.2465 1.2816 -4.9635 159 148 113
-0.2224 1.2801 -4.9620 160 149 114
-0.0043 1.2846 -4.9665 145 137 106
0.0198 1.2831 -4.9665 160 150 118
-0.1983 1.2771 -4.9605 124 115 87
-0.1743 1.2756 -4.9635 131 124 94
-0.1502 1.2726 -4.9635 132 126 99
0.0438 1.2801 -4.9665 118 109 81
0.0679 1.2786 -4.9665 141 133 102
-0.1261 1.2711 -4.9635 131 122 93
-0.1021 1.2696 -4.9635 125 117 91
0.0920 1.2756 -4.9650 125 116 89
0.1160 1.2741 -4.9650 102 95 74
-0.0780 1.2666 -4.9635 103 97 72
-0.0539 1.2651 -4.9635 125 116 86
-0.2480 1.2576 -4.9650 165 156 122
-0.0299 1.2621 -4.9650 116 108 80
-0.0058 1.2606 -4.9665 154 145 114
-0.2239 1.2561 -4.9620 158 149 113
-0.1998 1.2531 -4.9620 143 134 103
-0.1758 1.2516 -4.9650 96 87 65
0.0183 1.2591 -4.9665 142 134 104
0.0423 1.2561 -4.9650 154 145 112
-0.1517 1.2485 -4.9650 124 113 85
-0.1276 1.2470 -4.9635 157 143 110
0.0664 1.2546 -4.9635 151 142 110
0.0905 1.2531 -4.9635 129 120 92
0.1145 1.2500 -4.9635 122 114 85
-0.1036 1.2455 -4.9635 125 116 86
-0.0795 1.2425 -4.9635 149 141 110
-0.0554 1.1027 -4.9605 160 153 119
-0.0554 1.2410 -4.9635 145 136 105
-0.0329 1.2395 -4.9635 142 133 103
-0.2254 1.2320 -4.9620 153 144 109
-0.2013 1.2290 -4.9620 122 110 82
-0.0088 1.2365 -4.9650 145 136 105
0.0153 1.2350 -4.9665 146 138 108
-0.1367 1.1387 -4.9590 142 121 96
-0.1788 1.2275 -4.9635 142 132 101
-0.1547 1.2260 -4.9635 129 117 86
0.0393 1.2320 -4.9650 120 110 82
-0.0329 1.0996 -4.9620 125 116 86
-0.0088 1.0981 -4.9635 129 119 88
-0.1306 1.2230 -4.9620 145 131 100
-0.1066 1.2215 -4.9620 139 129 98
-0.0825 1.2185 -4.9620 145 136 104
-0.0584 1.2170 -4.9620 109 100 76
-0.2284 1.2079 -4.9605 132 124 94
-0.0344 1.2155 -4.9620 144 136 103
-0.0103 1.2124 -4.9620 135 127 95
0.0137 1.2109 -4.9635 139 131 101
0.0378 1.2079 -4.9635 139 130 99
0.0559 1.1463 -4.9620 163 154 118
0.0393 1.0936 -4.9635 142 131 102
-0.1562 1.2019 -4.9605 159 153 123
0.0799 1.1448 -4.9605 116 107 81
-0.1427 1.0124 -4.9575 157 143 115
-0.0840 1.1944 -4.9605 142 133 102
-0.0600 1.1929 -4.9620 113 103 77
-0.0359 1.1914 -4.9605 154 146 114
-0.0118 1.1884 -4.9620 139 130 101
0.0122 1.1869 -4.9635 133 125 96
0.0363 1.1854 -4.9635 138 129 101
0.0589 1.1824 -4.9620 138 132 106
-0.1532 1.0861 -4.9590 130 119 90
-0.1096 1.1733 -4.9590 118 110 84
0.0634 1.0921 -4.9620 122 113 85
-0.1306 1.0846 -4.9590 139 127 97
-0.0855 1.1718 -4.9620 141 132 103
-0.0630 1.1688 -4.9620 102 91 67
-0.0389 1.1673 -4.9620 103 96 72
-0.0148 1.1643 -4.9620 127 120 93
0.0092 1.1628 -4.9635 115 105 78
0.0333 1.1613 -4.9620 127 117 89
0.0574 1.1583 -4.9620 154 145 113
0.0754 1.0184 -4.9575 148 137 106
-0.1367 1.1508 -4.9590 116 104 78
-0.1066 1.0816 -4.9590 153 144 113
-0.0825 1.0801 -4.9590 151 141 106
0.0965 1.0530 -4.9560 142 132 101
0.1205 1.0500 -4.9560 135 123 94
-0.2209 1.1463 -4.9515 132 122 92
-0.1968 1.1448 -4.9499 88 82 60
-0.1998 1.1207 -4.9515 106 102 79
-0.2013 1.0966 -4.9515 146 137 106
-0.2028 1.0726 -4.9499 133 123 92
-0.2058 1.0485 -4.9499 127 119 89
-0.1186 1.0109 -4.9575 147 137 105
-0.2314 1.0275 -4.9499 152 142 110
-0.2073 1.0244 -4.9484 127 118 88
-0.2329 1.0034 -4.9499 157 148 116
-0.2104 1.0004 -4.9484 133 125 96
-0.0584 1.0786 -4.9605 142 132 99
-0.2434 1.0335 -4.9515 136 128 99
-0.1713 1.0275 -4.9530 117 107 80
-0.2359 0.9793 -4.9484 146 137 105
-0.0344 1.0756 -4.9620 137 127 94
0.0950 1.0290 -4.9560 153 141 108
-0.0103 1.0741 -4.9635 170 162 124
0.1190 1.0259 -4.9560 150 139 108
-0.0945 1.0094 -4.9575 134 124 91
-0.1743 1.2696 -4.9635 128 121 94
0.0438 1.2741 -4.9665 144 136 107
-0.2449 1.0094 -4.9499 154 145 111
-0.1728 1.0034 -4.9545 128 120 93
0.0137 1.0711 -4.9635 141 133 102
0.0920 1.0049 -4.9560 146 129 99
0.1160 1.0034 -4.9560 151 141 109
-0.0960 1.2019 -4.9605 145 137 106
-0.2480 0.9853 -4.9499 156 146 112
0.0679 1.2726 -4.9665 137 129 98
-0.1502 1.2666 -4.9650 97 92 69
-0.1261 1.2651 -4.9635 117 109 83
-0.1758 0.9793 -4.9545 125 117 90
0.0378 1.0696 -4.9620 137 128 98
0.0905 0.9808 -4.9560 140 125 93
0.1145 0.9793 -4.9560 141 131 101
0.0619 1.0681 -4.9605 132 121 90
-0.0720 1.2004 -4.9620 138 129 99
-0.1141 1.1372 -4.9590 143 134 105
-0.1021 1.2636 -4.9635 123 114 86
0.0920 1.2696 -4.9650 116 108 81
-0.0705 1.0064 -4.9575 162 154 122
-0.0464 1.0049 -4.9590 147 138 109
-0.0900 1.1357 -4.9605 165 156 123
0.1160 1.2681 -4.9650 98 88 66
-0.0780 1.2606 -4.9635 108 99 72
-0.0479 1.1974 -4.9620 145 135 104
-0.0239 1.1959 -4.9620 116 107 80
-0.2419 1.1914 -4.9605 145 136 103
-0.0539 1.2591 -4.9635 152 143 111
-0.1427 1.1463 -4.9590 140 120 95
0.0754 1.1508 -4.9605 131 123 96
-0.1186 1.1433 -4.9590 125 117 88
-0.0945 1.1418 -4.9605 138 129 96
-0.0705 1.1403 -4.9620 157 147 112
-0.0464 1.1372 -4.9635 127 118 87
-0.0239 1.1357 -4.9650 143 135 104
0.0243 1.1312 -4.9650 116 123 94
0.0483 1.1297 -4.9635 150 142 112
0.0724 1.1267 -4.9620 139 128 99
-0.1442 1.1222 -4.9590 145 128 104
-0.1216 1.1192 -4.9590 141 132 101
-0.0976 1.1177 -4.9590 140 132 101
-0.0735 1.1162 -4.9605 154 144 110
-0.0494 1.1132 -4.9620 161 152 116
-0.0254 1.1117 -4.9635 161 153 120
0.0468 1.1057 -4.9635 152 143 113
-0.1472 1.0981 -4.9590 118 104 78
0.0709 1.1027 -4.9605 148 139 107
-0.1231 1.0951 -4.9590 125 117 90
-0.0991 1.0936 -4.9590 107 100 74
-0.0750 1.0921 -4.9590 134 124 92
-0.0509 1.0891 -4.9605 160 150 117
-0.0269 1.0876 -4.9620 151 141 107
-0.0028 1.0846 -4.9635 162 151 117
0.0213 1.0831 -4.9635 165 156 123
0.0453 1.0816 -4.9620 157 148 115
0.0679 1.0786 -4.9605 148 138 107
-0.1487 1.0741 -4.9590 129 115 88
-0.1246 1.0711 -4.9590 150 140 107
-0.1006 1.0696 -4.9590 140 131 100
-0.0765 1.0681 -4.9590 154 146 113
-0.0539 1.0651 -4.9605 138 129 96
-0.0299 1.0635 -4.9620 127 117 87
-0.0058 1.0620 -4.9635 156 147 113
0.0183 1.0590 -4.9635 128 118 91
0.0423 1.0575 -4.9620 150 140 108
-0.1517 1.0500 -4.9575 137 121 91
0.0664 1.0545 -4.9590 152 142 108
-0.1276 1.0485 -4.9590 137 127 96
-0.1036 1.0455 -4.9605 130 120 92
-0.0795 1.0440 -4.9605 130 122 93
-0.0554 1.0410 -4.9605 147 139 108
-0.0314 1.0395 -4.9620 113 103 76
-0.0073 1.0380 -4.9635 150 141 109
0.0168 1.0350 -4.9620 146 136 105
0.0408 1.0335 -4.9620 136 126 93
0.0649 1.0305 -4.9590 125 113 84
-0.1291 1.0244 -4.9575 126 116 87
-0.1051 1.0214 -4.9575 149 139 106
-0.0810 1.0199 -4.9590 148 139 107
-0.0569 1.0184 -4.9590 126 117 88
-0.0329 1.0154 -4.9620 139 129 99
-0.0088 1.0139 -4.9620 141 132 100
0.0153 1.0109 -4.9620 133 124 93
-0.0660 1.1327 -4.9620 148 139 106
0.0378 1.0094 -4.9620 144 134 104
-0.0419 1.1312 -4.9635 139 129 98
-0.1547 1.0019 -4.9575 127 114 88
0.0619 1.0079 -4.9605 137 126 94
-0.1321 1.0004 -4.9575 128 117 88
-0.1081 0.9974 -4.9575 129 120 90
-0.0840 0.9959 -4.9575 126 118 89
-0.0600 0.9944 -4.9575 129 121 93
-0.0359 0.9914 -4.9590 134 125 95
-0.0118 0.9898 -4.9620 133 123 94
0.0122 0.9868 -4.9620 159 148 115
0.0363 0.9853 -4.9620 134 124 94
0.0604 0.9838 -4.9605 153 143 113
0.0844 0.9808 -4.9575 137 122 91
-0.2480 1.2516 -4.9650 154 146 112
-0.0314 1.2576 -4.9650 135 126 96
-0.0178 1.1282 -4.9650 134 125 94
-0.0073 1.2546 -4.9665 150 142 111
-0.2239 1.2500 -4.9620 143 133 99
-0.1998 1.2470 -4.9620 143 134 103
-0.1773 1.2455 -4.9650 131 121 94
0.0168 1.2531 -4.9665 145 137 107
0.0408 1.2500 -4.9650 151 142 108
-0.1517 1.2425 -4.9650 128 119 92
-0.1291 1.2410 -4.9620 164 149 115
0.0649 1.2485 -4.9635 147 138 106
0.0889 1.2470 -4.9620 125 116 88
-0.1051 1.2395 -4.9635 123 114 85
-0.0810 1.2365 -4.9635 137 128 99
0.1130 1.2440 -4.9620 124 114 86
-0.0569 1.2350 -4.9635 142 134 104
-0.0329 1.2335 -4.9635 138 128 96
-0.2269 1.2260 -4.9620 149 139 106
-0.0088 1.2305 -4.9635 154 145 113
0.0303 1.1252 -4.9635 124 118 89
0.0153 1.2290 -4.9650 127 119 89
0.0544 1.1222 -4.9635 118 109 82
-0.2028 1.2230 -4.9605 161 150 118
-0.1788 1.2215 -4.9620 130 121 91
-0.1547 1.2200 -4.9620 147 136 103
0.0393 1.2260 -4.9650 124 114 86
-0.2104 1.3448 -4.9605 142 132 99
-0.1863 1.3433 -4.9605 141 132 101
-0.2359 1.3237 -4.9590 115 109 84
-0.2119 1.3207 -4.9590 106 100 77
-0.1878 1.3192 -4.9590 127 121 95
-0.2149 1.2967 -4.9605 145 136 105
-0.1908 1.2952 -4.9605 151 142 109
0.0694 1.2245 -4.9590 113 107 83
0.0935 1.2215 -4.9590 128 121 94
0.1175 1.2200 -4.9605 151 142 109
-0.2224 1.2004 -4.9590 121 113 85
-0.1983 1.1989 -4.9575 131 122 91
-0.1743 1.1974 -4.9575 118 108 80
-0.1502 1.1944 -4.9590 103 96 73
0.0679 1.2004 -4.9605 115 111 89
0.0920 1.1974 -4.9590 159 154 124
-0.1261 1.1929 -4.9590 118 108 82
-0.1021 1.1914 -4.9590 115 106 79
0.1145 1.1959 -4.9575 149 140 109
-0.2239 1.1779 -4.9575 133 123 93
-0.2013 1.1748 -4.9560 146 137 106
-0.1773 1.1733 -4.9560 101 92 66
-0.1532 1.1703 -4.9575 124 115 91
-0.1291 1.1688 -4.9590 87 78 58
0.0889 1.1748 -4.9590 141 133 106
0.1130 1.1718 -4.9575 108 100 75
-0.2269 1.1538 -4.9545 130 120 89
-0.1788 1.1493 -4.9545 113 105 79
-0.1547 1.1463 -4.9590 117 106 79
0.0874 1.1508 -4.9590 102 95 70
0.1115 1.1478 -4.9575 129 123 97
0.1356 1.1463 -4.9590 144 136 106
-0.2299 1.1297 -4.9530 152 144 114
-0.1803 1.1252 -4.9530 109 102 77
0.1085 1.1237 -4.9575 119 112 86
0.1326 1.1222 -4.9575 132 125 98
-0.2314 1.1057 -4.9530 131 122 94
-0.2073 1.1027 -4.9515 129 120 91
-0.1833 1.1011 -4.9545 126 118 91
0.0318 0.9974 -4.9620 126 116 87
0.1070 1.0996 -4.9575 145 136 106
0.1311 1.0981 -4.9560 135 126 97
-0.1622 0.9898 -4.9575 141 133 105
0.0559 0.9959 -4.9605 136 127 97
-0.2329 1.0816 -4.9530 122 114 86
-0.1848 1.0771 -4.9515 110 102 75
0.0799 0.9944 -4.9575 158 126 95
-0.1382 0.9883 -4.9575 147 134 103
0.1040 1.0756 -4.9560 139 129 100
-0.1141 0.9868 -4.9575 102 91 66
-0.0900 0.9838 -4.9575 151 143 111
0.1281 1.0741 -4.9560 134 124 95
-0.0660 0.9823 -4.9575 137 128 98
-0.2359 1.0575 -4.9515 149 141 110
0.0829 1.3132 -4.9665 107 100 75
-0.1863 1.0530 -4.9515 128 120 91
-0.1637 1.0515 -4.9560 137 127 97
0.1025 1.0515 -4.9560 134 124 94
0.1265 1.0500 -4.9545 136 123 95
-0.2374 1.0335 -4.9515 121 112 84
-0.1652 1.0275 -4.9545 135 125 96
0.0769 1.0305 -4.9575 163 150 116
0.1010 1.0275 -4.9560 143 131 101
0.1250 1.0259 -4.9560 137 124 94
-0.2389 1.0094 -4.9499 142 133 100
-0.1682 1.0034 -4.9560 128 120 93
-0.2209 1.3583 -4.9665 132 122 89
0.0980 1.0049 -4.9560 136 119 91
-0.0028 1.3629 -4.9650 120 116 97
0.0213 1.3613 -4.9650 101 94 74
0.1220 1.0019 -4.9560 158 148 115
-0.1968 1.3553 -4.9635 143 132 101
-0.2419 0.9853 -4.9499 132 122 90
-0.1923 0.9808 -4.9499 129 121 94
-0.1728 1.3538 -4.9650 112 100 74
0.0965 0.9808 -4.9560 142 128 96
0.0453 1.3583 -4.9665 151 143 113
0.0679 1.3568 -4.9665 156 147 115
-0.1487 1.3523 -4.9650 134 125 96
-0.1246 1.3493 -4.9650 147 137 103
0.0920 1.3553 -4.9650 107 97 71
-0.1006 1.3478 -4.9650 145 132 106
-0.0765 1.3448 -4.9650 143 136 107
-0.2480 1.3358 -4.9635 152 142 108
-0.0539 1.3433 -4.9635 141 135 107
-0.0299 1.3418 -4.9650 121 112 84
-0.0058 1.3388 -4.9650 159 151 117
0.0183 1.3373 -4.9650 145 135 105
0.0423 1.3343 -4.9665 131 124 95
-0.1517 1.3283 -4.9650 131 125 98
0.0664 1.3328 -4.9665 142 134 104
0.0905 1.3313 -4.9650 114 106 80
-0.1276 1.3253 -4.9650 148 139 107
-0.1036 1.3237 -4.9635 160 148 120
0.1145 1.3283 -4.9635 111 103 77
-0.0795 1.3207 -4.9635 134 126 96
-0.0554 1.3192 -4.9635 128 120 91
-0.0314 1.3177 -4.9650 112 104 79
-0.0073 1.3147 -4.9650 134 126 98
0.0168 1.3132 -4.9650 143 136 107
0.0408 1.3117 -4.9665 117 110 85
0.0649 1.3087 -4.9665 139 132 102
-0.1532 1.3042 -4.9650 125 115 86
-0.1291 1.3012 -4.9650 124 115 87
0.0889 1.3072 -4.9665 110 102 76
0.1130 1.3042 -4.9650 139 128 98
-0.1051 1.2997 -4.9635 123 113 84
-0.0810 1.2982 -4.9635 136 127 96
-0.0569 1.2952 -4.9635 144 135 105
-0.0329 1.2937 -4.9635 156 145 114
-0.0103 1.2907 -4.9665 135 127 97
-0.2269 1.2861 -4.9620 130 120 88
0.0137 1.2892 -4.9665 131 122 92
0.0378 1.2876 -4.9665 126 118 91
-0.1788 1.2816 -4.9620 129 120 90
-0.1547 1.2801 -4.9635 133 125 95
0.0619 1.2846 -4.9665 137 129 98
0.0859 1.2831 -4.9665 120 110 84
-0.1321 1.2771 -4.9635 132 122 91
-0.1081 1.2756 -4.9635 120 113 86
0.1100 1.2801 -4.9650 137 129 102
0.1341 1.2786 -4.9635 155 147 116
-0.0840 1.2741 -4.9635 110 102 78
-0.0600 1.2711 -4.9635 138 130 100
-0.0359 1.2696 -4.9650 122 114 86
-0.2299 1.2621 -4.9620 159 149 111
-0.0118 1.2666 -4.9665 131 123 93
0.0122 1.2651 -4.9665 141 133 102
-0.2058 1.2606 -4.9620 160 151 116
-0.1818 1.2576 -4.9635 99 95 75
0.0363 1.2636 -4.9665 136 127 98
0.0604 1.2606 -4.9650 136 128 98
-0.1577 1.2561 -4.9650 96 86 62
-0.1336 1.2531 -4.9635 109 95 69
0.0844 1.2591 -4.9650 136 127 98
0.1085 1.2576 -4.9635 143 135 106
-0.1096 1.2516 -4.9635 141 132 101
-0.0855 1.2500 -4.9635 112 104 76
-0.0615 1.2470 -4.9635 136 127 96
0.1326 1.2546 -4.9635 157 147 116
-0.0374 1.2455 -4.9650 140 131 99
-0.0133 1.2425 -4.9650 127 119 89
-0.2314 1.2380 -4.9620 156 147 112
-0.2073 1.2365 -4.9620 164 157 123
0.0107 1.2410 -4.9665 134 125 95
0.0348 1.2395 -4.9665 138 130 100
-0.1833 1.2335 -4.9635 147 138 107
-0.1306 1.2170 -4.9605 150 136 105
-0.1066 1.2155 -4.9605 140 130 98
-0.0825 1.2124 -4.9620 134 125 94
-0.0584 1.2109 -4.9620 111 101 76
-0.1592 1.2320 -4.9635 143 132 103
0.0574 1.2380 -4.9620 153 143 109
-0.1352 1.2305 -4.9620 121 106 75
-0.1111 1.2275 -4.9620 131 122 92
-0.0870 1.2260 -4.9620 140 131 100
-0.0630 1.2230 -4.9620 126 117 91
-0.0404 1.2215 -4.9620 158 150 117
-0.1863 1.0590 -4.9515 134 126 97
-0.2344 1.2140 -4.9620 146 138 108
-0.0163 1.2200 -4.9620 148 140 108
0.0077 1.2170 -4.9635 119 111 83
-0.1848 1.2109 -4.9605 144 135 104
0.0318 1.2155 -4.9650 139 128 98
0.0559 1.2124 -4.9620 135 129 103
-0.1622 1.2079 -4.9605 153 145 113
-0.1382 1.2064 -4.9605 167 151 119
-0.0900 1.2019 -4.9605 150 141 110
-0.0660 1.1989 -4.9620 140 131 102
-0.0419 1.1974 -4.9605 142 132 100
-0.0178 1.1959 -4.9620 121 112 86
-0.2359 1.1899 -4.9605 151 143 111
0.0062 1.1929 -4.9635 126 119 93
0.0303 1.1914 -4.9635 147 138 109
0.0544 1.1899 -4.9620 138 132 106
-0.0915 1.1779 -4.9605 147 139 108
-0.0675 1.1748 -4.9620 118 109 82
-0.0434 1.1733 -4.9605 138 131 102
-0.0193 1.1718 -4.9620 149 143 113
0.0047 1.1688 -4.9635 150 142 113
0.0288 1.1673 -4.9635 132 124 95
0.0513 1.1658 -4.9620 145 135 106
0.0754 1.1628 -4.9605 151 144 117
-0.1171 1.1553 -4.9590 144 135 106
-0.0930 1.1538 -4.9605 136 126 93
-0.0705 1.1523 -4.9620 152 142 108
-0.0464 1.1493 -4.9620 156 146 114
-0.0224 1.1478 -4.9635 144 134 105
0.0017 1.1448 -4.9650 147 139 109
0.0258 1.1433 -4.9635 135 131 100
0.0498 1.1418 -4.9635 163 154 119
0.0739 1.1387 -4.9620 117 106 79
-0.1442 1.1342 -4.9590 125 98 77
-0.2028 1.3493 -4.9620 145 134 101
-0.1201 1.1312 -4.9590 134 126 99
0.1100 1.3478 -4.9635 113 105 77
0.1341 1.3448 -4.9635 118 107 80
-0.2299 1.3283 -4.9590 124 117 90
-0.2058 1.3268 -4.9575 103 97 74
-0.1818 1.3237 -4.9605 133 126 98
-0.2314 1.3042 -4.9605 155 147 115
-0.2073 1.3027 -4.9605 150 142 109
-0.1833 1.3012 -4.9605 137 128 96
0.0754 1.2290 -4.9605 117 109 83
0.0995 1.2275 -4.9605 136 128 98
0.1235 1.2260 -4.9605 134 124 92
-0.2164 1.2064 -4.9590 113 104 77
-0.1923 1.2049 -4.9590 161 152 120
-0.1682 1.2019 -4.9590 135 126 98
-0.1442 1.2004 -4.9590 165 156 127
0.0739 1.2064 -4.9605 146 143 119
0.0980 1.2034 -4.9590 151 144 115
-0.1201 1.1989 -4.9590 121 113 86
0.1220 1.2019 -4.9590 142 134 102
-0.2179 1.1824 -4.9575 116 108 79
-0.1938 1.1809 -4.9560 111 102 74
-0.1697 1.1779 -4.9560 106 99 76
-0.1457 1.1764 -4.9575 135 119 92
-0.1231 1.1748 -4.9590 113 106 82
0.0950 1.1794 -4.9575 123 116 89
0.1190 1.1779 -4.9575 149 140 110
-0.0960 1.1297 -4.9590 120 112 86
-0.2449 1.1598 -4.9575 120 111 83
-0.2209 1.1583 -4.9530 133 123 90
-0.1728 1.1538 -4.9560 122 113 86
-0.1487 1.1523 -4.9590 130 117 91
0.0935 1.1553 -4.9590 128 120 94
0.1175 1.1538 -4.9590 135 129 103
-0.2465 1.1372 -4.9560 125 116 88
-0.1743 1.1312 -4.9545 117 109 84
0.0002 1.1944 -4.9620 121 113 89
-0.0720 1.1282 -4.9605 139 129 97
0.0920 1.1312 -4.9590 129 120 92
0.1160 1.1297 -4.9575 135 128 101
-0.0479 1.1252 -4.9620 161 151 117
-0.2480 1.1132 -4.9545 122 113 85
-0.2239 1.1102 -4.9530 118 110 83
-0.1998 1.1087 -4.9515 109 101 75
-0.0239 1.1237 -4.9635 131 122 90
-0.1758 1.1072 -4.9560 117 109 83
0.0889 1.1072 -4.9590 139 128 99
0.0243 1.1192 -4.9650 159 151 118
0.0483 1.1177 -4.9635 126 116 87
0.1130 1.1057 -4.9560 120 112 86
-0.1457 1.1102 -4.9590 123 109 82
-0.2269 1.0861 -4.9530 145 136 107
-0.1788 1.0831 -4.9545 110 102 76
-0.1216 1.1072 -4.9590 152 145 112
0.0724 1.1147 -4.9620 138 128 97
0.0874 1.0831 -4.9590 138 129 99
0.1115 1.0816 -4.9560 115 106 79
-0.0976 1.1057 -4.9590 133 125 94
-0.0735 1.1042 -4.9590 159 149 113
0.1356 1.0801 -4.9560 138 129 99
-0.0494 1.1011 -4.9605 156 149 116
-0.2284 1.0635 -4.9515 159 151 119
-0.0269 1.0996 -4.9620 140 133 102
-0.1803 1.0590 -4.9530 126 117 90
0.0859 1.0590 -4.9575 152 140 109
-0.1487 1.0861 -4.9590 138 125 97
0.1100 1.0575 -4.9560 131 120 90
0.1326 1.0560 -4.9545 149 139 108
0.0453 1.0936 -4.9635 142 131 101
0.0694 1.0906 -4.9605 127 118 90
-0.1246 1.0831 -4.9590 137 126 96
-0.2314 1.0395 -4.9499 143 134 103
-0.1818 1.0350 -4.9515 123 116 89
-0.1006 1.0816 -4.9590 137 127 97
-0.0765 1.0801 -4.9590 163 153 117
-0.1592 1.0320 -4.9560 132 121 92
0.0829 1.0350 -4.9575 149 131 99
0.1070 1.0335 -4.9560 153 140 110
-0.0524 1.0771 -4.9605 155 146 112
0.1311 1.0320 -4.9545 150 125 99
-0.0284 1.0756 -4.9620 144 135 101
-0.0043 1.0741 -4.9635 156 146 112
0.0198 1.0711 -4.9635 140 132 102
-0.1848 1.0109 -4.9515 124 116 90
-0.1607 1.0094 -4.9560 139 129 102
0.0814 1.0124 -4.9575 121 110 83
0.1055 1.0094 -4.9560 105 92 67
0.1296 1.0079 -4.9545 150 137 106
0.0438 1.0696 -4.9620 132 123 92
-0.1863 0.9868 -4.9515 127 119 92
-0.1502 1.0620 -4.9590 135 121 92
0.1025 0.9853 -4.9560 136 124 93
0.1265 0.9838 -4.9545 141 131 99
-0.1261 1.0590 -4.9590 143 132 100
0.0679 1.0666 -4.9605 143 133 100
-0.1021 1.0575 -4.9590 102 93 69
-0.0344 1.2094 -4.9620 142 134 103
-0.0103 1.2064 -4.9620 146 139 109
-0.0780 1.0560 -4.9605 133 124 95
-0.0539 1.0530 -4.9605 145 137 106
-0.0299 1.0515 -4.9620 118 108 80
-0.0058 1.0500 -4.9635 155 146 112
0.0183 1.0470 -4.9620 152 140 111
-0.1517 1.0380 -4.9575 149 132 102
0.0423 1.0455 -4.9620 122 112 81
0.0649 1.0425 -4.9590 123 112 83
-0.1276 1.0365 -4.9590 140 130 100
-0.1036 1.0335 -4.9590 134 124 95
-0.0810 1.0320 -4.9590 144 134 102
-0.2284 1.2019 -4.9605 131 122 92
-0.0569 1.0290 -4.9605 127 118 87
-0.0329 1.0275 -4.9620 123 113 84
-0.0088 1.0259 -4.9635 140 129 99
0.0153 1.0229 -4.9620 125 115 86
0.0393 1.0214 -4.9605 148 138 104
-0.1547 1.0139 -4.9560 125 110 85
-0.1306 1.0124 -4.9575 156 144 115
0.0634 1.0199 -4.9590 137 125 93
-0.1066 1.0094 -4.9575 157 147 113
-0.2028 1.1448 -4.9499 106 100 76
-0.2058 1.1222 -4.9515 101 97 76
-0.2089 1.0726 -4.9499 136 127 96
-0.2119 1.0500 -4.9499 131 123 93
-0.0825 1.0079 -4.9575 156 147 114
-0.2134 1.0259 -4.9484 145 135 104
-0.1908 1.0229 -4.9499 137 129 100
-0.0584 1.0064 -4.9575 139 130 101
-0.0344 1.0034 -4.9605 126 116 88
-0.0103 1.0019 -4.9620 134 125 95
0.0137 0.9989 -4.9620 126 116 85
-0.1562 0.9898 -4.9575 131 117 91
-0.2164 1.0019 -4.9484 142 133 103
0.0378 0.9974 -4.9620 113 104 76
0.0619 0.9959 -4.9605 139 129 98
-0.1321 0.9883 -4.9575 149 138 106
-0.1081 0.9853 -4.9575 130 121 93
-0.1923 0.9989 -4.9499 132 124 96
-0.0840 0.9838 -4.9575 157 148 117
-0.0600 0.9823 -4.9575 143 135 104
-0.0359 0.9793 -4.9590 132 123 95
-0.2419 0.9793 -4.9484 138 128 95
-0.1622 1.0575 -4.9575 138 129 99
0.0168 1.1011 -4.9650 120 110 83
-0.1397 1.1147 -4.9590 122 109 83
-0.2269 1.3583 -4.9665 151 141 108
-0.0088 1.3629 -4.9650 117 113 93
0.0243 1.1914 -4.9635 129 119 91
-0.1682 0.9914 -4.9560 137 129 101
0.0153 1.3613 -4.9650 106 101 81
0.0498 0.9959 -4.9605 124 115 86
0.0769 1.3132 -4.9665 128 120 93
-0.1412 1.3087 -4.9665 135 125 97
-0.1171 1.3072 -4.9650 111 100 73
-0.1156 1.1132 -4.9590 159 150 117
0.0784 1.1207 -4.9605 144 134 104
-0.2089 1.1463 -4.9499 123 116 89
0.0739 0.9944 -4.9590 122 97 68
-0.1442 0.9883 -4.9575 130 112 85
-0.2119 1.1222 -4.9515 87 83 64
-0.0915 1.1117 -4.9590 155 146 113
-0.0675 1.1087 -4.9605 142 132 98
-0.2149 1.0741 -4.9515 127 117 88
-0.1201 0.9868 -4.9575 105 93 67
-0.0434 1.1072 -4.9605 169 160 124
-0.0960 0.9853 -4.9575 142 133 102
-0.2028 1.1508 -4.9499 118 110 83
-0.2043 1.1267 -4.9499 91 88 68
-0.0720 0.9823 -4.9575 136 127 97
-0.2089 1.0786 -4.9499 127 118 87
-0.0193 1.1042 -4.9635 170 162 128
-0.1923 1.0711 -4.9499 141 132 102
0.0288 1.1011 -4.9650 126 117 91
-0.2104 1.0560 -4.9499 144 136 105
-0.2179 1.0500 -4.9499 134 126 95
-0.1412 1.0921 -4.9590 149 134 106
-0.2134 1.0320 -4.9484 138 129 98
0.0529 1.0981 -4.9620 119 110 83
-0.0479 0.9808 -4.9575 160 151 119
0.0754 1.0966 -4.9605 122 112 84
-0.1938 1.0470 -4.9499 142 133 103
-0.1171 1.0891 -4.9590 118 109 82
-0.0930 1.0876 -4.9590 123 114 86
-0.0690 1.0846 -4.9590 154 143 110
-0.1893 1.0290 -4.9499 140 132 103
-0.2194 1.0259 -4.9484 150 141 107
-0.1953 1.0244 -4.9484 142 134 103
-0.0449 1.0831 -4.9605 158 149 114
-0.2028 1.3568 -4.9635 137 127 95
-0.0103 1.1342 -4.9650 132 123 92
-0.0224 1.0816 -4.9635 165 156 119
-0.0118 1.3403 -4.9650 156 148 113
0.0258 1.0771 -4.9635 137 128 97
0.0498 1.0741 -4.9620 157 148 116
-0.2209 1.0019 -4.9484 141 133 102
-0.1983 1.0004 -4.9484 123 115 88
0.0107 1.1087 -4.9650 140 132 104
0.0122 1.3373 -4.9650 146 137 106
-0.1442 1.0681 -4.9590 113 96 70
-0.1201 1.0651 -4.9590 133 124 94
0.0739 1.0726 -4.9605 135 124 93
-0.0976 1.1779 -4.9605 147 140 109
-0.0960 1.0635 -4.9590 122 115 88
-0.0720 1.0605 -4.9590 133 125 96
0.0092 1.0846 -4.9650 141 131 101
-0.0735 1.1764 -4.9620 107 98 73
-0.2149 1.0079 -4.9484 140 132 103
-0.1923 1.0049 -4.9499 121 113 87
-0.0494 1.1733 -4.9620 139 131 102
-0.0479 1.0590 -4.9605 142 133 101
-0.0254 1.1718 -4.9620 137 130 102
-0.0013 1.1703 -4.9635 147 140 111
0.0213 1.1673 -4.9635 148 140 110
0.0468 1.1658 -4.9620 143 133 104
-0.2179 0.9838 -4.9484 137 127 96
-0.1231 1.1568 -4.9590 146 137 108
0.0694 1.1628 -4.9605 130 123 97
-0.0239 1.0575 -4.9620 118 108 80
0.0002 1.0545 -4.9635 161 152 118
-0.0991 1.1538 -4.9605 159 149 116
-0.0765 1.1523 -4.9620 156 146 112
0.0243 1.0530 -4.9620 147 138 108
-0.0524 1.1508 -4.9620 148 138 105
-0.0163 1.3463 -4.9650 155 145 114
0.0077 1.3448 -4.9650 135 125 94
0.0303 1.3418 -4.9650 129 121 92
0.0544 1.3403 -4.9665 138 130 99
-0.1622 1.3343 -4.9635 124 116 90
-0.1382 1.3328 -4.9650 156 147 112
0.0784 1.3373 -4.9650 126 118 89
0.0589 1.3207 -4.9665 133 125 97
0.0829 1.3192 -4.9665 98 92 68
-0.1336 1.3147 -4.9650 142 135 106
-0.1111 1.3117 -4.9650 102 91 67
0.1070 1.3177 -4.9650 145 137 108
0.1311 1.3147 -4.9650 141 132 103
-0.0870 1.3102 -4.9635 127 119 90
-0.0630 1.3072 -4.9635 125 118 88
-0.0284 1.1478 -4.9635 114 104 78
-0.2329 1.2982 -4.9620 154 146 112
-0.0389 1.3057 -4.9635 155 146 115
-0.0148 1.3042 -4.9665 143 136 106
0.0092 1.3012 -4.9665 140 133 104
0.0333 1.2997 -4.9665 115 108 83
0.0574 1.2982 -4.9665 144 137 107
-0.1607 1.2922 -4.9635 135 127 98
-0.1367 1.2907 -4.9650 138 128 97
0.0814 1.2952 -4.9665 112 103 76
0.1055 1.2937 -4.9650 147 139 108
-0.1126 1.2876 -4.9635 139 130 99
-0.0885 1.2861 -4.9635 129 121 91
0.1296 1.2907 -4.9635 143 134 102
-0.2043 1.1387 -4.9484 96 92 70
-0.0645 1.2846 -4.9635 103 95 70
-0.0404 1.2816 -4.9635 152 144 113
-0.2344 1.2741 -4.9635 170 160 122
-0.2104 1.2726 -4.9620 153 142 106
-0.0163 1.2801 -4.9665 129 121 93
0.0077 1.2771 -4.9665 152 144 111
0.0318 1.2756 -4.9665 131 123 95
-0.1863 1.2696 -4.9620 144 136 106
-0.1622 1.2681 -4.9650 106 100 78
0.0559 1.2741 -4.9665 128 120 90
0.0799 1.2711 -4.9650 143 134 104
-0.1382 1.2666 -4.9635 120 113 88
-0.1141 1.2636 -4.9635 108 99 75
0.1040 1.2696 -4.9650 119 110 85
0.1265 1.2681 -4.9635 96 87 64
-0.0900 1.2621 -4.9635 119 110 82
-0.0660 1.2606 -4.9635 139 131 101
-0.2359 1.2500 -4.9635 149 139 103
-0.0434 1.2576 -4.9650 146 137 105
-0.0193 1.2561 -4.9665 147 139 107
0.0047 1.2531 -4.9665 120 112 84
-0.2119 1.2485 -4.9620 140 130 96
-0.1893 1.2470 -4.9635 103 94 71
0.0288 1.2516 -4.9665 154 146 113
0.0529 1.2500 -4.9650 163 154 120
-0.1652 1.2440 -4.9650 130 122 93
-0.1412 1.2425 -4.9635 149 133 101
0.0769 1.2470 -4.9635 119 110 81
0.1010 1.2455 -4.9620 137 128 100
-0.1171 1.2395 -4.9620 132 121 91
-0.0930 1.2380 -4.9635 134 125 95
0.1250 1.2440 -4.9620 125 114 87
-0.0690 1.2365 -4.9635 156 148 117
-0.0449 1.2335 -4.9635 132 123 94
-0.2389 1.2260 -4.9635 151 142 111
-0.2149 1.2245 -4.9605 140 130 97
-0.0208 1.2320 -4.9635 141 132 101
0.0032 1.2290 -4.9650 140 132 100
0.0273 1.2275 -4.9650 141 132 102
-0.1908 1.2230 -4.9620 140 130 99
0.1025 1.3358 -4.9635 123 114 87
-0.1156 1.3298 -4.9650 139 127 98
-0.1667 1.2200 -4.9620 130 120 90
-0.0915 1.3283 -4.9635 121 113 87
0.0513 1.2260 -4.9620 138 129 99
0.1265 1.3343 -4.9635 119 110 82
-0.0675 1.3268 -4.9635 139 132 103
-0.0434 1.3237 -4.9635 124 116 89
